# .PCD v0.7 - Point Cloud Data file format
VERSION 0.7
FIELDS x y z rgba
SIZE 4 4 4 4
TYPE F F F U
COUNT 1 1 1 1
WIDTH 1096
HEIGHT 1
VIEWPOINT 0 0 0 1 0 0 0
POINTS 1096
DATA ascii
-0.66936946 1.1673254 -0.37510973 4287994785
-0.56084275 1.1222048 -0.38292715 4286410358
-0.45596766 1.150268 -0.40630826 4293650928
-0.35722828 1.159849 -0.41575181 4294243319
-0.25503698 1.1533289 -0.41227728 4293914098
-0.15563756 1.114017 -0.41588637 4292597985
-0.056806661 1.1110625 -0.4210034 4291940313
0.040603995 1.1220313 -0.42994463 4292269278
0.13595288 1.1534805 -0.44503841 4293716976
0.23776086 1.1520572 -0.46453324 4292732147
0.33965534 1.1536951 -0.47733161 4293651187
0.41157413 1.1493413 -0.48055241 4292598762
-0.51829171 1.0922197 -0.48928726 4290954707
-0.46126771 1.1079096 -0.48035759 4294111990
-0.38535169 1.1151607 -0.4769626 4293716978
-0.038019329 1.0791048 -0.47618896 4291283409
0.043916494 1.0822951 -0.48591635 4291347665
0.14626677 1.0987529 -0.51431018 4294835453
0.23284109 1.0983131 -0.52773601 4294573053
0.33508644 1.0991775 -0.53078187 4292666353
0.4039844 1.1016445 -0.53394842 4292074735
-0.47856444 1.3447444 0.6692242 4279175180
-0.39634272 1.3458883 0.66549766 4279372303
-0.30398232 1.3445727 0.66688949 4279438352
-0.22199659 1.3455397 0.67865831 4279307536
-0.47619161 1.3474777 0.6353966 4280226333
-0.39815482 1.3472526 0.63390583 4279307286
-0.34380049 1.345795 0.63111597 4278781448
-0.81392634 1.30897 0.0035187074 4293128181
-0.75286126 1.3091627 -0.0054627028 4292268509
0.083150387 1.2010415 -0.058649719 4286740863
0.1669278 1.2079887 -0.050511878 4280558123
-0.80580437 1.2768117 -0.077725671 4294638331
-0.7435329 1.2715157 -0.094927378 4293059049
-0.54567283 1.2334292 -0.13365307 4285872959
0.069123216 1.2022443 -0.088446148 4285293930
0.16609547 1.2262253 -0.13187774 4283847776
0.23629656 1.1983825 -0.15259396 4281348669
-0.79937595 1.2473654 -0.15883365 4294901502
-0.72457659 1.2446713 -0.16930304 4291873238
-0.6469276 1.256951 -0.2091023 4287195252
-0.55735004 1.2534456 -0.20460828 4285414981
-0.43788296 1.2882898 -0.23711188 4287991195
-0.3616679 1.2820798 -0.24195154 4288648095
-0.26665804 1.2581435 -0.24307202 4278913036
-0.11741409 1.2799318 -0.25700745 4292861666
-0.051313996 1.2839347 -0.26818451 4293783025
0.023296254 1.2861755 -0.27720937 4294835709
0.19863996 1.2643167 -0.25684884 4286150022
0.25292483 1.2286314 -0.24411206 4284964198
0.30880505 1.2007822 -0.26058963 4285950065
-0.64754313 1.2260222 -0.28929907 4285422186
-0.56824672 1.2455014 -0.27208513 4288839046
-0.42199531 1.2451669 -0.29986641 4293849075
-0.35247439 1.2341896 -0.31453264 4292664544
-0.25574067 1.2154171 -0.33730716 4288455086
-0.1406164 1.2268647 -0.33286783 4293848817
-0.053787 1.2427486 -0.32235497 4293585135
0.05476464 1.2402474 -0.3245036 4292466911
0.15292732 1.2441496 -0.33468649 4292730084
0.24822341 1.225016 -0.34462413 4282992210
0.34607676 1.2174697 -0.35306045 4283649110
0.41923136 1.2270645 -0.37390742 4285623677
-0.52743322 1.1959119 -0.36202869 4294311678
-0.41335434 1.199923 -0.36392877 4294901502
-0.3535665 1.1953703 -0.36706895 4294835710
-0.2609247 1.1932056 -0.37061337 4294440697
-0.15218276 1.1939296 -0.37857521 4293650671
-0.098428458 1.1988289 -0.37833691 4292532450
0.071699157 1.1887431 -0.40397716 4290296007
0.17408624 1.1922059 -0.41324058 4294243575
0.24526308 1.1879424 -0.42072207 4292533222
0.34302536 1.1848152 -0.43153116 4291940573
0.41531745 1.1864938 -0.43231291 4289573316
-0.49082991 1.3560451 0.66138947 4279897621
-0.4010343 1.3536893 0.67570782 4279570451
-0.27538615 1.3506932 0.64640361 4279240973
-0.19256821 1.3578523 0.65427315 4279569681
-0.094317131 1.3884399 0.65464228 4279438609
-0.018848058 1.4077221 0.655572 4286083184
-0.4906621 1.3726233 0.58694893 4279766293
-0.40058532 1.3678914 0.58541387 4279634961
-0.30092236 1.3676929 0.5834893 4279635733
-0.19833332 1.3819501 0.57939231 4279635475
-0.10202003 1.413223 0.5776487 4279768347
-0.032040711 1.4292909 0.59355187 4282135350
-0.49406391 1.3946503 0.5248279 4280820526
-0.39906865 1.390525 0.52365792 4280359206
-0.3299621 1.3905085 0.52417266 4281149237
-0.18181327 1.4060191 0.51676774 4283129698
-0.90518403 1.4089921 0.071456037 4294307830
-0.85890388 1.4250697 0.063601106 4292927969
-0.75199592 1.3793312 0.056904778 4293053646
-0.91690499 1.4239266 0.05435599 4294241781
-0.78733718 1.4133384 0.0051697707 4292659931
-0.74007016 1.3914608 0.020108713 4292990430
-0.67203057 1.4180136 0.017456746 4289829274
-0.78984928 1.4091319 -0.052176133 4291023078
-0.73429471 1.3805268 -0.10054886 4294440183
-0.65907574 1.3909568 -0.097344749 4290357422
-0.11143033 1.3486924 -0.16931403 4288981683
-0.034668732 1.3612475 -0.16597971 4291021524
0.058238707 1.3711723 -0.16703704 4291546072
0.12595087 1.3580782 -0.19025265 4289244093
-0.71928138 1.3300906 -0.16772644 4293912812
-0.66213626 1.3228711 -0.18659906 4288903812
-0.41810268 1.3055898 -0.21270497 4287994531
-0.37841532 1.307263 -0.20722149 4287599520
-0.11377295 1.3192496 -0.21231142 4291348433
-0.04115881 1.3176223 -0.22442515 4293059048
0.057906069 1.3191698 -0.2375959 4294243575
0.15078339 1.3146545 -0.24654469 4291742678
0.21780849 1.2950983 -0.23702291 4286210670
-0.055232227 1.4396291 0.5550999 4279837238
-0.027900137 1.4434019 0.56672037 4282594369
-0.99625695 1.5241729 0.098001659 4293388274
-0.92888087 1.4992552 0.082701065 4292400353
-0.82205629 1.4654859 0.073968999 4288120207
-0.71860999 1.440426 0.058843363 4292664030
-0.66987044 1.4401762 0.054467332 4278387458
0.08915557 1.4975215 0.0046130391 4286744219
-0.91297561 1.431968 0.05125327 4292594393
-0.7977702 1.4341329 0.0082141263 4287727001
-0.72089714 1.4305766 -0.0082247565 4290951882
-0.66919714 1.4336926 -0.0063297367 4282202441
0.080813803 1.4676281 -0.044298161 4289768891
-0.72432476 1.424528 -0.053482056 4293257203
-0.6607607 1.4319106 -0.05934041 4283320666
0.073012717 1.4126779 -0.11381267 4289768122
-1.0868481 1.6172587 0.21421027 4294506233
-1.0140632 1.6095468 0.2045494 4292794590
-0.91793168 1.6066426 0.19031157 4289105816
-0.83280295 1.6022732 0.17138003 4286998390
0.099810682 1.596612 0.11854236 4290558149
-1.0126537 1.5533503 0.13724893 4290294985
-0.91958886 1.5449026 0.12208682 4290489785
-0.80876929 1.5571604 0.11177289 4289110709
-0.75489134 1.5434331 0.093061022 4282930279
0.091241196 1.5460747 0.054888237 4289899451
0.55027086 1.7181063 0.53962702 4281080360
0.55938375 1.717862 0.5391593 4283517024
-1.1736519 1.7407014 0.37932089 4294506233
-1.1087329 1.7437744 0.37326604 4294572538
-1.0070395 1.7412493 0.36374637 4293251808
-0.93168229 1.7411064 0.34543586 4287331463
-1.1717732 1.7207397 0.34671357 4294439927
-1.105076 1.6921415 0.3109839 4294506233
-1.0089873 1.6910673 0.30264026 4290948278
-0.91801578 1.6899669 0.28811201 4286146422
-0.8508085 1.6652776 0.25603923 4281078047
0.099609397 1.6680067 0.20971964 4282598240
-1.1073908 1.6510533 0.25203913 4294506232
-1.0172184 1.6485364 0.24564235 4291148746
-0.90314233 1.6532634 0.23793504 4288251796
-0.84188372 1.6520293 0.22828558 4283054402
0.09754689 1.6287726 0.16340029 4290099659
0.54482323 1.82111 0.58717644 4280950831
0.15276217 1.8169024 0.52963847 4293453551
0.17483725 1.811396 0.52826953 4291479512
0.53351068 1.7983357 0.52632087 4282004547
0.57135874 1.7328367 0.53046113 4286675588
-1.256891 1.8414752 0.50486362 4294440440
-1.1895791 1.8327707 0.49126866 4294572282
-1.0947728 1.8316464 0.48346344 4294769916
-1.0131483 1.8367186 0.47425982 4294572539
0.15610519 1.8006296 0.47784504 4292990691
0.16784789 1.7883209 0.46449038 4289437623
-1.191556 1.7842627 0.42805967 4294506233
-1.0971091 1.7794034 0.41663092 4294704123
-0.99793297 1.7837005 0.40739757 4293846248
-0.93645734 1.7661582 0.38071701 4287328384
-1.3512868 1.9628898 0.6627785 4294374135
-1.2863457 1.9632454 0.65979505 4294440440
-1.1795201 1.963459 0.65316939 4294638331
-1.1198239 1.9625266 0.64731878 4294769916
0.42243183 1.8580911 0.59178549 4289962407
0.51245147 1.8351388 0.57975709 4284242281
0.61819381 1.9067525 0.63716352 4282270552
-1.3421812 1.9373149 0.62810224 4294374391
-1.2824603 1.9176354 0.59965926 4294506232
-1.1844288 1.9203305 0.59660023 4294638331
-1.0913244 1.9217687 0.58835214 4294704124
-1.0242761 1.8916751 0.55595583 4292532715
0.13375786 1.8574333 0.54296833 4291282649
0.44578534 1.8393545 0.55586845 4286616480
0.50508368 1.8295506 0.55003017 4284506233
-1.2763762 1.8746656 0.54609728 4294506232
-1.1996424 1.875945 0.54179889 4294572282
-1.085623 1.8758473 0.53283823 4294835709
-1.0196393 1.8758385 0.52291548 4292927466
0.12315305 1.9105704 0.43753442 4284437596
0.55647713 2.0245416 0.7782957 4285759638
0.61033118 2.002208 0.77076149 4286088615
-1.4336048 2.0445871 0.77363825 4278387034
-1.3813928 2.0443304 0.77138841 4280431741
-1.2771555 2.0459366 0.76048547 4291878886
-1.1850407 2.0472014 0.7572999 4293980915
0.54821968 2.0113382 0.70166057 4283850873
0.60413206 1.967133 0.70097429 4283456623
-1.3728269 2.0125678 0.72367871 4294046969
-1.2772732 2.0050192 0.70697176 4294506233
-1.1761515 2.0058715 0.70101458 4294704124
-1.1131098 1.9856422 0.66731417 4294572539
0.59780955 1.9392307 0.64189017 4281939003
0.11826377 1.9494573 0.51149881 4288453807
0.36679152 2.1074891 1.0728509 4282010226
0.41690594 2.1207342 1.0692611 4280163367
0.35545653 2.1082511 1.0034351 4282661203
0.43383235 2.1140997 0.99656034 4283913072
0.34525222 2.1174974 0.90432042 4286541443
0.42209512 2.111939 0.90216345 4287267733
0.34678641 2.1241851 0.79298139 4286145639
0.38836733 2.1169193 0.80740774 4287266962
0.53937942 2.0465558 0.77916926 4285169301
-1.2738695 2.0886328 0.80116755 4286016136
0.15054651 2.1056025 0.71716213 4293453808
0.20903288 2.1188595 0.73109591 4290422451
0.33193374 2.087044 0.71775496 4284561732
0.42230833 2.0898147 0.71139431 4286740091
0.50724655 2.0426803 0.70823574 4285759385
0.13062581 2.0736709 0.66671622 4294704893
0.17478503 2.0724869 0.66444963 4291477977
-1.1329541 2.2314813 1.1679952 4283980942
-1.0891098 2.2092447 1.1637403 4280295219
0.54356503 2.2470043 1.0935572 4282265653
-1.1386297 2.2476017 1.0756847 4282797178
-1.097541 2.2285004 1.0722851 4280618792
0.30002594 2.1537347 0.96405983 4285222784
0.57640654 2.205148 0.97516674 4285493112
0.61305183 2.2107344 0.97450435 4284309871
-1.1398624 2.2595413 0.97995114 4282665074
-1.1023337 2.2406824 0.9793973 4281014056
-0.12476339 2.2500069 0.90989625 4286208884
-0.065316096 2.2443519 0.90053338 4281084214
0.16528933 2.2346249 0.89279962 4289444047
0.2443244 2.2217209 0.89078915 4290098118
0.30038118 2.161577 0.90237331 4284175731
0.46143073 2.2040772 0.86725008 4290887380
0.54517376 2.1994228 0.89069635 4283787652
0.61650997 2.1770778 0.90209776 4284045422
-1.1392303 2.2571051 0.91769642 4280759123
0.15413697 2.1720283 0.81075197 4292926954
0.23466736 2.1806641 0.80973113 4291281105
0.32084659 2.1528685 0.82293355 4285163643
0.43683738 2.1614296 0.80262828 4287337907
0.51018023 2.1840155 0.82117802 4284971665
0.66621017 2.2153974 0.82778823 4286220721
0.25009775 2.1432903 0.75606173 4291081918
0.44286722 2.1378059 0.74052721 4283518320
0.55190396 2.2870486 1.1647906 4284504931
0.56063551 2.3015163 1.0814021 4283386965
0.60821873 2.2762246 1.0890468 4283124050
-0.14663197 2.329772 1.0234356 4294111990
-0.081471719 2.3288651 1.0219525 4284179845
0.26134598 2.3200378 0.99385333 4291281877
0.48503321 2.2841921 0.97818136 4284638073
0.53232366 2.2823484 0.99265838 4282994275
0.70679516 2.3107932 0.97505081 4285096563
-1.1874804 2.2997937 0.9759742 4282202978
-0.15189213 2.2808743 0.94444257 4293186767
-0.06529215 2.2764082 0.94182432 4285823368
0.26267612 2.269011 0.92930269 4290819276
0.47987399 2.2622342 0.92452383 4288782262
0.51628989 2.2614799 0.92662042 4285101460
0.67176974 2.2756503 0.87200505 4286813627
0.69323236 2.2504761 0.89926988 4285949042
0.70756501 2.4395728 1.2428968 4285689465
0.73315108 2.4003367 1.2306218 4286279544
-0.19932944 2.4476893 1.197933 4294309623
-0.15518148 2.4526408 1.1988186 4287534766
0.17971183 2.4549553 1.1839712 4289830564
0.26883706 2.4502418 1.1749245 4288984263
0.32166997 2.4403787 1.1641986 4280035935
0.70139712 2.4302869 1.1733068 4285361531
0.72356087 2.400547 1.1742749 4285228915
-0.19532384 2.415153 1.1401674 4294441464
-0.14676955 2.4007282 1.1191339 4290231760
-0.08854147 2.3732557 1.0850719 4281610047
0.19763298 2.4043272 1.1148233 4287997374
0.24931784 2.3920164 1.0960999 4290822608
0.69170272 2.4270253 1.0773412 4285754744
0.71713895 2.3827193 1.0791782 4286545545
0.24203205 2.3656652 1.0404631 4291742683
0.68668431 2.3920765 0.97464508 4286021012
0.70359838 2.3633518 0.98901188 4285492347
-0.19541106 2.5469763 1.3135507 4294505977
-0.13030019 2.5386608 1.3052958 4285549645
-0.030591689 2.5442636 1.3052888 4282522147
0.072312944 2.5534248 1.3087111 4284964447
0.17567894 2.5284035 1.2876998 4292006113
0.26015508 2.5277593 1.2873408 4284705668
0.66486913 2.4954562 1.2633725 4285557876
-0.19259857 2.4887333 1.2503403 4294374392
-0.16107547 2.4956713 1.2528288 4285891231
0.18193977 2.4858675 1.2243834 4291676116
0.24169399 2.4826229 1.2257093 4289443023
0.67061347 2.4772463 1.1803975 4285293933
-1.9036872 2.6040497 1.1571797 4283114545
-1.8832477 2.6035016 1.1561307 4282920241
0.65909457 2.4610441 1.1199104 4282530644
-1.8970084 2.5938439 1.1306413 4282853678
-1.8421683 2.5765493 1.0880208 4282591797
-1.7857736 2.5958686 1.0614307 4284765028
-1.8252157 2.5280566 1.0158292 4282328629
-1.7774353 2.555603 1.0124999 4283448397
0.63043654 2.5867159 1.3376254 4283844943
0.050062604 2.5866222 1.3324291 4283450705
-1.9122138 2.645005 1.2040496 4286148987
-1.8580284 2.64818 1.1734087 4285753976
-1.8238363 2.6331553 1.1175292 4285159014
-1.7830033 2.6210368 1.0714257 4286149507
-2.1640408 2.9318841 1.6307781 4285888904
-2.1367743 2.9117641 1.6428624 4286676106
-2.1808422 3.0032589 1.6733947 4286741645
-2.1062472 3.021462 1.6818686 4287070611
-1.9963616 3.0405214 1.7000873 4287137177
-1.9016278 3.0282688 1.687241 4287005336
-1.7813605 3.0347569 1.6890514 4286020750
-2.2051044 3.022974 1.6125118 4286281607
-2.1385057 3.0405197 1.6392404 4286612118
-2.2506583 3.0371714 1.5314258 4285886596
-1.7695519 3.1060877 1.7389226 4283783805
-2.1630006 3.0864108 1.6389275 4287529104
-2.0951395 3.0695682 1.6591872 4287136148
-2.0122538 3.075213 1.6558275 4287136408
-1.8946801 3.0762377 1.6593513 4286873236
-1.7913572 3.0811107 1.6600175 4284967301
-1.7387092 3.0787601 1.683733 4283847040
-2.2043855 3.0862827 1.5829481 4286544524
-2.1078863 3.0872216 1.5735285 4286873489
-2.0096884 3.0897245 1.5709184 4287135637
-1.9050686 3.0941138 1.5781957 4286610577
-1.804113 3.1051879 1.5700891 4284769662
-2.2806284 3.0861413 1.4951001 4286280837
-2.2119844 3.1053002 1.5042037 4286478475
-2.1061835 3.11936 1.5011305 4286872977
-2.0052052 3.1135843 1.4901121 4286807444
-1.9217869 3.1073389 1.5000238 4286544527
-1.8302058 3.1181829 1.5031688 4285427331
-2.3247926 3.1025972 1.4450209 4286149250
-2.2227824 3.0951078 1.4376136 4286412937
-1.9068203 3.1471138 1.5554384 4286675342
-1.7834641 3.1426601 1.5286291 4282928753
-2.2751958 3.1741443 1.4489307 4286346892
-2.2044315 3.1570766 1.4621669 4286610061
-2.1072721 3.1493013 1.4607803 4286741649
-2.001869 3.1522884 1.4501758 4286741138
-1.9145368 3.1632311 1.4613822 4286215562
-1.8194253 3.1667604 1.4653323 4283520113
-2.1988056 3.1814651 1.3856595 4286478475
-2.1121564 3.1725397 1.3897341 4286609807
-2.0196869 3.1772923 1.3791857 4286609550
-1.9146156 3.1891782 1.3736854 4285624197
-1.8361038 3.1967521 1.3831652 4282730337
-2.1978261 3.1945148 1.2922707 4286215304
-2.1049976 3.194845 1.3032737 4286675343
-2.0130944 3.1902225 1.2848176 4286082954
-1.9117224 3.2036288 1.2876531 4285557374
-1.8507569 3.2057977 1.2962639 4282925665
-2.2791984 3.2464402 1.3713034 4286150792
-1.8731402 3.3049545 1.3452101 4281612373
-1.8447702 3.2437267 1.3526871 4281152593
-2.1978364 3.2395165 1.2823856 4286344326
-2.0982103 3.2636082 1.2875814 4285424516
-2.0401485 3.2490652 1.2865082 4285945734
-1.8904352 3.2582948 1.2770158 4284367707
-1.8530543 3.2318525 1.2929357 4282267485
-1.8963871 3.3730783 1.3503703 4280031308
-0.2720497 0.91034073 0.28021708 4279109901
-0.25404096 0.91356754 0.28846991 4279503120
-0.27340269 0.92644417 0.26764569 4278978316
-0.20369853 0.93655056 0.27754092 4278781195
-0.1088092 0.95970792 0.28433073 4278584327
-0.019204015 0.97868359 0.29290402 4278978827
0.060350437 0.98639125 0.31709394 4279241745
-0.28408769 0.94487828 0.21015322 4278780938
-0.21573268 0.9657436 0.20899761 4278584072
-0.12365544 0.98610204 0.22001047 4278518534
-0.052651752 0.99535835 0.24004659 4278715655
0.52735561 0.94460022 0.17486133 4289833386
0.54247928 0.94276774 0.16251963 4288515475
-0.29712421 0.98498333 0.11177216 4278781194
-0.23813199 0.99515527 0.13224146 4278584073
-0.32353017 1.0038412 0.049561869 4278781453
-0.41925609 0.99919611 -0.3777951 4285693581
-0.4591817 0.98697257 -0.6200369 4294901502
-0.35806072 0.97480386 -0.62207371 4294572282
-0.25602514 0.9554522 -0.6002695 4291348434
-0.16534638 0.95080608 -0.6177451 4292532191
-0.10127319 0.95765078 -0.6316148 4293058791
-0.44878781 0.96690226 -0.65267551 4294835452
-0.36363849 0.9558413 -0.65585381 4294835709
-0.26526552 0.93030602 -0.6543386 4292466914
-0.16195646 0.93587011 -0.66748393 4293914355
-0.069550812 0.94566423 -0.68423802 4294835966
0.030201988 0.93953979 -0.69972152 4294901502
0.13327208 0.93304574 -0.71622515 4294835709
0.23722984 0.92037696 -0.71799654 4294901501
0.32856339 0.91442555 -0.72624195 4294901501
0.40997249 0.90898013 -0.73845863 4294835709
0.10558653 0.99437237 0.34795129 4281014810
0.18051539 1.0054814 0.34770805 4284505185
0.016814159 1.0027872 0.26306269 4279176465
0.096732304 1.0150262 0.28315097 4279439382
0.17824955 1.0344797 0.28715971 4284110171
0.29479277 1.0445925 0.26715541 4282200631
0.38211486 1.0077446 0.24315189 4285229938
0.45322436 0.97787666 0.22324479 4286625485
-0.16691734 1.0041038 0.1540581 4278649607
-0.099515721 1.0099427 0.17673913 4278518533
-0.01060028 1.0240623 0.19283704 4278978827
0.088485695 1.0533309 0.18908264 4279768346
0.1578563 1.0629547 0.20279735 4284638315
0.3148047 1.0552818 0.18458943 4278650121
0.39043558 1.022909 0.17006537 4278847500
0.48279032 0.97705936 0.16087532 4281413170
0.54231453 0.9535746 0.13158144 4279373329
-0.27596194 1.0138879 0.067251876 4278781197
-0.20808254 1.0214106 0.092041574 4278649864
-0.11497681 1.037634 0.10127302 4278650119
-0.015715331 1.0630343 0.09553355 4279175950
0.060533252 1.0757095 0.11621194 4279701781
0.33781564 1.0588868 0.11637367 4278912776
0.39804676 1.0402232 0.077189364 4278519049
0.48264259 0.99951994 0.066345818 4278650121
0.53999597 0.96965486 0.063727364 4278650633
-0.3086119 1.0326782 0.0035743569 4279175441
-0.2195604 1.0552212 0.0056930645 4279044623
-0.12394932 1.0738953 0.0098398197 4279242002
-0.048420552 1.0820512 0.025840027 4279636245
0.42285448 1.0453235 0.00017613842 4278584840
0.48653424 1.0193064 -0.028527021 4278650121
0.53884524 0.99166948 -0.03808308 4278650634
-0.37754399 1.0641085 -0.11611561 4281671722
-0.32362238 1.0698102 -0.087508671 4280293152
-0.23231684 1.0861031 -0.074025944 4279833884
-0.16255513 1.0913086 -0.057127237 4279965215
0.5084765 1.0270952 -0.11865842 4278650635
0.53677773 1.0156336 -0.13802586 4282266940
-0.48953924 1.0498797 -0.20121923 4287920519
-0.45080063 1.0650306 -0.19830531 4289897902
-0.34750146 1.0889598 -0.15855491 4280687398
0.54072082 1.0239108 -0.20405093 4290293429
-0.49859548 1.0611089 -0.2847977 4285754751
-0.45431358 1.0733166 -0.29570335 4288385969
-0.36727697 1.0792512 -0.31127107 4292926180
-0.5203889 1.0633779 -0.39123675 4285954180
-0.45749938 1.049172 -0.37960517 4287667369
-0.37829843 1.093564 -0.34757015 4292860389
-0.21368922 1.0665865 -0.43942705 4293059048
-0.14454632 1.0673229 -0.44273415 4291742421
-0.0704294 1.0657849 -0.44891131 4292137948
-0.51834744 1.0560114 -0.48776388 4289646035
-0.45176092 1.0670292 -0.49206626 4293717233
-0.34411532 1.038155 -0.50482172 4293190378
-0.24906772 1.0244479 -0.49986592 4291874521
-0.14954725 1.0267768 -0.503218 4291347920
-0.047417413 1.0291694 -0.50797582 4291545554
0.048720051 1.0327656 -0.52175772 4291874263
0.12633733 1.0326662 -0.54020172 4294572025
0.26525116 1.032571 -0.57030827 4294901502
0.32139751 1.0287946 -0.57752138 4294901502
0.49853039 1.0151521 -0.54964471 4291872987
0.51282209 1.0034193 -0.54395282 4293124842
-0.51589739 1.0368919 -0.55167377 4294835966
-0.45311537 1.0155187 -0.57455593 4294835709
-0.36436513 1.0051068 -0.57649034 4294309368
-0.24629062 0.98331249 -0.55549651 4291216590
-0.15289082 0.9818995 -0.57098413 4291085006
-0.055546965 0.97871339 -0.60017037 4292927205
0.043073419 0.99523342 -0.61446011 4294375160
0.14603864 0.99957895 -0.61951798 4294704124
0.24466315 0.9950639 -0.62552965 4294835709
0.34211278 0.98905253 -0.63335532 4294835709
0.43561679 0.98473841 -0.64396232 4294638331
0.50645053 0.99601293 -0.66157252 4289180099
-0.047582384 0.96191734 -0.66421402 4294901502
0.04210557 0.95967525 -0.67587781 4294901502
0.13825008 0.95333886 -0.68759996 4294835709
0.23411107 0.94523823 -0.68945616 4294901502
0.33586413 0.93777955 -0.6973418 4294901502
0.43851057 0.93614042 -0.7145738 4294769917
0.49472046 0.95563114 -0.7324059 4294046454
0.23348996 1.0799255 0.23484729 4282070851
0.12917283 1.0849298 0.14415197 4281872435
0.21880469 1.0973363 0.16866262 4281413172
0.27364108 1.0807395 0.16371694 4278650377
0.021930359 1.0919807 0.052920789 4280358686
0.095596306 1.1011187 0.079553299 4282267709
0.20496993 1.1293014 0.075389326 4280623913
0.29130977 1.0923438 0.073960111 4278716427
0.36122257 1.0641346 0.046058409 4278650379
-0.094670884 1.0992805 -0.033557422 4279965983
-0.010218861 1.1098928 -0.013492206 4280622885
0.078454427 1.1345153 -0.012128979 4282793796
0.2053867 1.1515671 -0.0097915744 4279703067
0.28873077 1.1163012 -0.026339641 4278979345
0.38131502 1.0724089 -0.032789052 4278716170
0.44396082 1.0489447 -0.060196526 4278715914
-0.28189823 1.1044267 -0.13795459 4280030233
-0.20967442 1.1090862 -0.12049347 4280030748
-0.12268419 1.1189089 -0.10081057 4280294692
-0.018026127 1.1394709 -0.093858294 4280689193
0.06463398 1.1574312 -0.086345144 4282595135
0.23698395 1.1562176 -0.084548935 4279834653
0.29347578 1.1350485 -0.12065841 4279900190
0.37956819 1.0953931 -0.13016653 4279504917
0.46534836 1.0566427 -0.14236574 4278979086
-0.51116049 1.1855971 -0.16990875 4284296755
-0.41379291 1.1302484 -0.22161691 4290230985
-0.29324171 1.1103039 -0.16580397 4280820786
-0.22705792 1.1161956 -0.1580236 4280029720
-0.13713278 1.1418872 -0.16463897 4281147175
0.31675565 1.1418554 -0.21043402 4283190105
0.37698564 1.1181122 -0.23178504 4283583317
0.47321299 1.0733724 -0.23643363 4281215280
0.53436446 1.0379703 -0.24673375 4291412682
-0.5484072 1.2117046 -0.29171509 4290688707
-0.42478725 1.135469 -0.27940229 4291677664
-0.36872441 1.1124536 -0.31133324 4294242806
-0.0020219106 1.13065 -0.35694146 4292532448
0.068425037 1.1448536 -0.35608339 4292137948
0.13295029 1.1450361 -0.36575514 4292399834
0.39424369 1.1226888 -0.30358452 4287001472
0.47406745 1.0931026 -0.33345652 4289834170
0.5297724 1.0713986 -0.33963072 4293716722
-0.49842119 1.1627157 -0.37467381 4293189609
-0.42525068 1.1386843 -0.39638361 4293913843
-0.3359457 1.1568304 -0.40031627 4294375161
-0.23474865 1.1566755 -0.40661991 4293782513
-0.13306218 1.1219957 -0.40710315 4292598242
-0.031742919 1.0945818 -0.41273454 4291874263
0.061959043 1.1085973 -0.42267901 4292400606
0.15505649 1.1315941 -0.43654335 4293848304
0.26438335 1.1294482 -0.46989119 4291221488
0.33299726 1.128888 -0.47713077 4293914870
0.48534399 1.0834824 -0.43652144 4293453807
0.5303244 1.0715705 -0.44233629 4293189611
-0.43003929 1.1090666 -0.45120382 4294045942
-0.34396645 1.1112322 -0.46324247 4293519344
-0.26945561 1.1237001 -0.45344719 4293059050
0.077283166 1.0722172 -0.47569361 4292729568
0.16312045 1.0820805 -0.51241302 4294835709
0.25648695 1.0752547 -0.52433026 4294244604
0.35494035 1.0785209 -0.53368372 4292929523
0.45288402 1.0707167 -0.54228222 4290364374
0.5194959 1.0271763 -0.50448507 4291937998
0.18629482 1.0434549 -0.57176745 4294901502
0.21748821 1.0419347 -0.57412368 4294901502
0.36163107 1.0300517 -0.58517277 4294901502
0.46630067 1.0293006 -0.6023159 4291481051
0.51064676 1.0207481 -0.62947655 4287794842
-0.45067453 1.3132894 0.67632014 4280095002
-0.36054125 1.3167101 0.67141712 4279701010
-0.25617921 1.3140154 0.66622919 4280291864
-0.1761948 1.3216505 0.67233676 4279832853
-0.45858058 1.3306342 0.60617292 4279963416
-0.36663479 1.3282318 0.60631323 4279634963
-0.27058369 1.3254632 0.61516947 4279963157
-0.19192597 1.3280101 0.63613242 4279963407
-0.47344169 1.347816 0.55047286 4280291351
-0.39265782 1.3409024 0.54793638 4279699986
0.1403133 1.1874783 -0.064532414 4285096559
0.17670944 1.1725664 -0.049876399 4280361257
-0.53377515 1.2332772 -0.13183351 4281800741
0.11601797 1.1965244 -0.12254348 4287860124
0.18730655 1.1855702 -0.12534863 4282400330
0.25354481 1.1624457 -0.15332851 4280491818
-0.68822879 1.3167735 -0.17148696 4291999679
-0.62131101 1.2790314 -0.21326467 4287592577
-0.51788962 1.2544845 -0.20923704 4283908434
-0.41007844 1.2859281 -0.23130831 4289370792
-0.34255007 1.2747688 -0.23824285 4287922571
-0.089830294 1.2731386 -0.2505849 4293256170
-0.027137952 1.2705454 -0.26026303 4293717487
0.20229083 1.1995468 -0.20460244 4288254880
0.27648088 1.1655401 -0.22601902 4286476664
0.33414817 1.1443077 -0.27816859 4282658099
-0.59588242 1.2442111 -0.25788704 4286403419
-0.54913324 1.2341497 -0.261664 4290226097
-0.41021246 1.2444705 -0.29075518 4292861670
-0.33245724 1.2307466 -0.30853748 4291019466
-0.22530596 1.1950511 -0.34375229 4290826717
-0.109134 1.2223282 -0.31813151 4294177526
-0.021400085 1.2295518 -0.31570423 4293256427
0.078121997 1.2232844 -0.32292825 4292467166
0.17985694 1.2241094 -0.33585021 4290295747
0.27607283 1.2025217 -0.33856931 4280887088
0.36689669 1.1949245 -0.35878938 4284900465
0.443396 1.1599312 -0.37379941 4289112759
0.55438823 1.1361881 -0.36218929 4293979637
-0.39668819 1.2034826 -0.34542999 4294835965
-0.32489297 1.1993405 -0.35351196 4294835709
-0.22401798 1.1901909 -0.36064753 4294111734
-0.12175659 1.1827345 -0.37036017 4293453549
-0.056403246 1.1851794 -0.37590474 4292532191
0.066740617 1.1722199 -0.395136 4290033864
0.18514189 1.1758841 -0.40823835 4294046454
0.26948315 1.161436 -0.42263195 4292270049
0.37023818 1.1584164 -0.43668699 4292401893
0.43869501 1.1555114 -0.45007151 4288191920
0.38663042 1.1292219 -0.49112457 4293783029
0.44639638 1.1243223 -0.49567673 4288851902
-0.1344665 1.336785 0.66309649 4279241486
-0.053269234 1.359202 0.67036158 4279898389
0.011408143 1.3746319 0.67197424 4291741383
-0.45432973 1.3508809 0.56444615 4279700761
-0.3385672 1.3434584 0.56188846 4279371533
-0.25435814 1.3422984 0.57257771 4279174924
-0.1600007 1.3534222 0.58822197 4279438610
-0.062575094 1.3819141 0.5869602 4279636246
0.0023068746 1.3947244 0.60824299 4282133805
-0.51604241 1.3726925 0.51521778 4283972158
-0.46310768 1.3628528 0.52710086 4282134077
-0.36304605 1.3557531 0.52394342 4281740597
-0.2679874 1.3543986 0.52628642 4282989636
-0.16297419 1.376574 0.52509522 4282201665
-0.092043489 1.3970374 0.52871269 4282266686
-0.74630719 1.4007396 0.11112491 4288382100
-0.71412629 1.3803011 0.088280126 4286412167
-0.76062 1.4100837 0.017169151 4287859100
-0.69334126 1.3946882 0.0052061114 4289964465
-0.64025599 1.3885051 -0.0085940138 4278782222
-0.76054823 1.3992916 -0.058743112 4290955481
-0.69620663 1.3817942 -0.080728434 4291676879
-0.63350379 1.3689463 -0.11043247 4282987580
-0.067529887 1.3325862 -0.16321787 4290756811
0.0084264372 1.3467548 -0.16273879 4292335070
0.070848525 1.3573356 -0.15939526 4290757070
-0.68764478 1.3446501 -0.13800268 4291338147
-0.64420283 1.3449332 -0.14161375 4286988870
-0.38432056 1.3099421 -0.20822665 4288190118
-0.089728825 1.3077825 -0.20576906 4291085262
-0.0065607675 1.3060321 -0.21845163 4293585390
0.089155257 1.3050823 -0.23124848 4293717233
0.18037674 1.289503 -0.25303882 4288978604
0.25026187 1.2550626 -0.2685861 4278913034
0.10989398 1.2660708 -0.28418413 4294572538
0.17118005 1.265167 -0.29222926 4291084492
-0.020690629 1.4189445 0.554066 4280821810
-0.0021976656 1.4278513 0.56209886 4279901745
-0.8275649 1.5486501 0.13172463 4292267483
-0.78594643 1.5320238 0.090999074 4288387495
-0.77084595 1.5086869 0.056490939 4290622908
0.059437066 1.4550891 -0.040366862 4292532450
0.079765588 1.4518476 -0.040045142 4289110704
0.075866431 1.397848 -0.10800736 4289373873
-0.93319178 1.6523494 0.23670527 4287462536
-0.87842345 1.6279968 0.20962119 4287593089
-0.85966557 1.5877863 0.16128814 4286143849
-0.80964255 1.5740669 0.14026529 4283780951
0.068966091 1.546932 0.066052355 4291808468
0.088990442 1.5392007 0.057249419 4288780710
0.086353593 1.4933854 0.0041157813 4286677393
-1.0182004 1.7794973 0.39349127 4294703867
-0.98392117 1.7805316 0.3858934 4291280330
-1.0118641 1.7580127 0.36153728 4294572539
-0.95632029 1.7199095 0.31874427 4287461503
-0.89856523 1.6802071 0.27687559 4280620851
0.079666682 1.674275 0.22442894 4289968081
0.10440771 1.6710629 0.22734691 4286676099
-0.92508495 1.6818625 0.26416561 4287263875
0.075006619 1.632695 0.16639081 4293058794
0.098276369 1.6310334 0.16179758 4288254626
0.071425922 1.5910343 0.11059525 4293058794
0.091664106 1.5963787 0.11011844 4288782506
0.56347114 1.7331674 0.50887483 4283187014
0.70645732 1.7383734 0.49891099 4287069318
0.73910135 1.7358019 0.49999928 4288318615
-1.0913075 1.8834044 0.51898342 4293848049
-1.06305 1.861187 0.49479008 4293650671
0.51176596 1.7632054 0.47085527 4287278780
0.57040077 1.7141964 0.45949927 4282136906
0.69189698 1.7252853 0.42111474 4287597727
0.73024058 1.7033426 0.42262501 4286807179
-1.0824058 1.847634 0.46541962 4294704381
-1.0299425 1.8159823 0.43607795 4293190634
0.073731177 1.7514066 0.31086352 4278321691
0.70874941 1.6924576 0.36753899 4288915129
0.72587341 1.6838224 0.36478397 4287001483
0.077582233 1.7167616 0.26825693 4285362304
0.10719046 1.6924441 0.25303775 4287203216
-1.1987541 2.0135083 0.67816466 4294506746
0.41878036 1.8464264 0.59681916 4289436590
0.52527076 1.8464379 0.59427404 4281745748
0.54289699 1.8196944 0.58841789 4281081653
0.70084637 1.8045563 0.59782314 4287923861
0.75521082 1.8005084 0.59275049 4288385441
-1.1767869 1.992193 0.64975303 4294178038
-1.1396527 1.9538848 0.60510141 4293387757
0.41229188 1.828748 0.56239927 4288645012
0.48132133 1.8137107 0.53873438 4286018181
0.55249417 1.8009197 0.53087419 4281676093
0.68221158 1.8048893 0.52985865 4287663520
0.74496156 1.7643236 0.54410034 4288451745
-1.1204363 1.9186329 0.55747569 4294440696
0.08110974 1.8938279 0.41421789 4286478719
0.50285184 1.7721682 0.47379947 4291217102
0.53256482 1.7750545 0.4738138 4284447124
0.67337018 1.7655957 0.45107397 4288518575
0.63178891 1.9329729 0.70399874 4282998653
0.67234594 1.9213825 0.69111371 4284898920
-1.2106092 2.0417993 0.70935827 4293848049
0.62916237 1.9215251 0.64273715 4284246661
0.67072445 1.9267559 0.62984157 4285755777
0.089495733 1.9730977 0.53428906 4291808731
0.65067691 1.8709775 0.56643766 4287791256
0.086600743 1.9150285 0.44721469 4288055183
0.079771139 1.9058049 0.38952875 4282925904
0.35564348 2.0910826 1.0284261 4282266447
0.45319265 2.075542 1.0159373 4283058016
0.49067387 2.059129 0.98894644 4282267974
0.34258345 2.0911696 0.9307518 4285490815
0.43793774 2.0796542 0.91911238 4285887625
0.48424891 2.069793 0.96721959 4282332742
0.54598224 2.0451074 0.78242928 4284839556
0.60040772 2.0185826 0.78350157 4285893806
0.84866607 2.0419526 0.78464627 4291016896
0.11314208 2.0997362 0.69392198 4291544793
0.31796458 2.0760219 0.6910702 4286210157
0.40391287 2.0657125 0.69321573 4288847262
0.51611894 2.0350418 0.71503842 4284838797
0.58861059 1.9925987 0.71977711 4284180350
0.090637513 2.0572159 0.64680523 4293190124
0.33169493 2.0499194 0.66587692 4289367959
0.38737833 2.0350027 0.65724558 4292192673
0.505597 2.025949 0.66159797 4286087317
0.56247902 1.9892659 0.66175568 4281612610
0.10389044 2.0151227 0.58690804 4288059054
0.77970517 2.1618686 1.1630472 4287990427
0.81804401 2.1623478 1.1631173 4288781482
0.35472548 2.109046 1.0802208 4281810776
0.77308577 2.1694119 1.1262397 4287532187
0.83782572 2.1148105 1.0967798 4289372848
0.36059591 2.1053369 1.0093402 4282660173
0.41138649 2.1090324 1.0217884 4282794068
0.77635473 2.141119 0.973975 4285955221
0.83036035 2.1018102 0.99912006 4289569457
0.12643644 2.2103755 0.89239371 4284051847
0.22672285 2.2049742 0.90928972 4289831853
0.33183107 2.1216969 0.92601985 4286476944
0.42204773 2.1049433 0.93587118 4285624207
0.55206567 2.166791 0.90710133 4281948017
0.60059333 2.1636374 0.89941412 4282995565
0.76856434 2.1492546 0.90046215 4286675078
0.82067847 2.109561 0.902394 4289634479
0.07037767 2.2134845 0.85136336 4291743713
0.12961565 2.1857333 0.81700355 4292926697
0.22191899 2.1792605 0.81039023 4292334049
0.32464218 2.1371515 0.83390951 4285358447
0.41136467 2.1257865 0.829817 4288255400
0.48966527 2.1647518 0.78496879 4284318615
0.58844918 2.1552813 0.8559404 4286615730
0.76809877 2.1543744 0.84270597 4288450466
0.82203722 2.1065276 0.80659753 4289437872
0.058917541 2.1363497 0.75484842 4294111221
0.11343499 2.1358185 0.74678051 4292201430
0.2184085 2.1351197 0.7416209 4290949567
0.31694165 2.11886 0.7437827 4285092189
0.41502491 2.1230192 0.74131125 4286017924
0.47739461 2.1187387 0.74224854 4283985544
0.83196568 2.0832269 0.73346305 4288581536
0.5675301 2.2862968 1.174841 4283778404
0.76085407 2.2433054 1.1896386 4287793817
0.814381 2.1843309 1.165992 4289045167
0.54370338 2.2651651 1.1168969 4283650133
0.6006726 2.2548478 1.0828961 4283715929
0.75967842 2.2115533 1.0925609 4287005584
0.79847234 2.1854706 1.0892448 4288715177
-0.13509107 2.3330121 1.0050422 4294243574
-0.061365083 2.3314369 1.0031959 4282264391
0.49446368 2.2842171 0.99342299 4283187276
0.52309239 2.2608495 1.0164025 4282860111
0.60548836 2.2276411 0.98263723 4285165701
0.74965 2.2268224 0.99858814 4286347655
0.79489684 2.1801677 1.0380607 4287205021
-0.1425823 2.3000655 0.95062202 4290423732
-0.0668514 2.2882853 0.93903375 4284110692
0.17171296 2.2327497 0.89636165 4288001219
0.24024868 2.2584205 0.92481506 4289965505
0.47103801 2.2573669 0.90571201 4289770956
0.52948248 2.2374568 0.90601301 4285167766
0.60924965 2.198004 0.9421261 4283913056
0.7435919 2.2376618 0.91128552 4286806924
-0.14009054 2.2655509 0.89628834 4283848275
-0.083713427 2.2606664 0.89320749 4282597694
0.075007856 2.2335339 0.87894499 4291550443
0.13360295 2.2302389 0.87049663 4292731116
0.23599187 2.2233579 0.86423457 4290688713
0.45794898 2.2030227 0.83408213 4288718274
0.51476586 2.2055316 0.83630538 4285430930
0.75960529 2.1857905 0.80710447 4287529359
0.78586447 2.1763809 0.79309541 4288844705
0.72985548 2.3520248 1.26638 4287005070
0.54974914 2.3010623 1.1779399 4284376431
0.70745993 2.3772237 1.212638 4285688438
0.73356634 2.3338714 1.199227 4286742413
-0.20707121 2.4308875 1.1343499 4294572025
-0.13909301 2.430732 1.134325 4288981435
-0.08090844 2.3937469 1.093846 4281675069
0.19942909 2.4088857 1.1016853 4289308623
0.25646991 2.403306 1.0940466 4290098124
0.56584698 2.3350978 1.0850911 4283650140
0.68021202 2.353323 1.0938021 4285557884
0.72316396 2.3287601 1.0998654 4284836995
-0.20902018 2.3891222 1.0659051 4294441209
-0.15230161 2.371227 1.049963 4293323249
-0.079294838 2.3671575 1.0425075 4283652979
0.2516177 2.3601477 1.0333369 4290821583
0.48597267 2.306731 0.97677934 4286021004
0.54543644 2.3209205 1.0110457 4282733161
0.69372123 2.3676641 0.97638518 4285887106
0.7092247 2.323637 1.0085776 4285362305
0.48419276 2.2963235 0.95183122 4287993772
0.51802784 2.2937055 0.95689029 4282870910
0.71143925 2.2896106 0.90880549 4286084230
0.68254423 2.4363918 1.2930694 4285755005
-0.20756747 2.5182586 1.2420202 4294375160
-0.13746215 2.510848 1.2386926 4284374903
0.082435034 2.5281866 1.2660857 4281476914
0.1801952 2.4957252 1.2164648 4291542987
0.27563897 2.4907939 1.2162216 4285892256
0.68293393 2.4376259 1.2004229 4285887106
0.18816507 2.4625959 1.1628196 4288387242
0.26652783 2.4425309 1.1441591 4289310148
0.32226577 2.4372373 1.1308558 4282537102
0.68092811 2.4344196 1.1063286 4285294452
0.68330586 2.4199457 1.0101744 4285821316
-0.26173696 2.6579192 1.4170859 4294177269
-0.20784402 2.6542418 1.4177852 4294177782
-0.10653225 2.6444733 1.4086045 4293848566
-0.0078426739 2.6359229 1.4032116 4293322223
0.08691781 2.6322865 1.3986549 4292795369
0.18369193 2.6260557 1.3907517 4291742683
0.29188308 2.6020243 1.381514 4281937989
0.34496996 2.6146796 1.3890762 4281871167
0.6210627 2.5695322 1.3779886 4284702824
0.64016289 2.5188215 1.3596716 4285557623
-0.21056323 2.5930243 1.3414851 4294111990
-0.11767042 2.5801787 1.3299863 4288904341
-0.019752404 2.5820758 1.3306242 4286345331
0.088468961 2.5746496 1.3219924 4289173399
0.18971817 2.5734382 1.3225112 4291874014
0.27680045 2.5695784 1.3207732 4282862434
0.62247843 2.5610843 1.3123659 4282335569
0.64332467 2.5187135 1.2943316 4285491574
-0.083367079 2.5591035 1.2838387 4281412922
-0.042358592 2.5555506 1.2815977 4281281080
0.17635334 2.5366027 1.2696457 4292072162
0.25837028 2.5294971 1.2651639 4285167503
0.65009987 2.5048802 1.1969088 4284111203
0.64350861 2.5085571 1.1395788 4283848307
0.66283327 2.5532105 1.0244017 4287470789
0.017585192 2.6622257 1.4291288 4292992492
0.12021165 2.6785498 1.4376596 4292203747
0.21169847 2.6545563 1.4198213 4288451513
0.32853785 2.6517844 1.375102 4281219979
0.35923347 2.632092 1.3986707 4281812576
0.60277736 2.619216 1.3948964 4283386713
-1.8553598 3.0060444 1.6824232 4287136664
-1.9283801 3.00894 1.6107814 4286743446
-1.8800218 2.9801314 1.6378927 4287070870
-1.8340259 3.0410149 1.6882792 4286938771
-1.7765707 3.0537841 1.6992261 4286479504
-1.6970721 3.0353086 1.6861675 4283386728
-1.9431571 3.0572052 1.5985436 4287070355
-1.8663889 3.0688455 1.6255009 4286742162
-1.7601532 3.0704994 1.6174555 4285361539
-1.7003984 3.0677605 1.6161931 4281413199
-1.9548538 3.0868678 1.5246555 4286676369
-1.8750857 3.0973327 1.5498441 4286610063
-1.7768011 3.0963755 1.5431236 4285755525
-1.9928623 3.1168759 1.466192 4286413709
-1.7413294 3.1225934 1.5691141 4282267475
-1.9392827 3.1414819 1.4902484 4286609806
-1.8707224 3.1440814 1.5063143 4286215562
-1.768827 3.1318984 1.5037752 4283650412
-2.0403404 3.1698091 1.4114851 4286478476
-1.9663038 3.1660042 1.4164708 4286347147
-1.8717529 3.1731758 1.41354 4285886854
-1.7765578 3.1524196 1.4126917 4283255654
-2.0574753 3.1922538 1.330518 4286346631
-1.9639609 3.2014842 1.3368096 4286215304
-1.8700182 3.1876585 1.3398798 4285689731
-1.7790929 3.1822548 1.3226508 4282399059
-2.0926507 3.2094374 1.2733824 4286149761
-1.7893355 3.1831596 1.2568072 4284893814
-2.0290258 3.2339809 1.3981853 4286019976
-1.9413805 3.2259743 1.384287 4285559173
-2.054112 3.2441592 1.3088646 4286017666
-1.9614419 3.2397313 1.3072721 4286411137
-1.8766365 3.2338929 1.3016018 4287001480
-1.7876137 3.2243664 1.3001549 4283449695
-2.0766871 3.2561741 1.2646862 4287461250
-1.9686059 3.2424507 1.2480168 4288115054
-0.23233603 0.94505847 0.28759685 4278781451
-0.16088304 0.93685544 0.31383619 4283580498
-0.25752816 0.94688392 0.25738275 4278978569
0.0080199139 0.98756832 0.35174796 4283254092
0.070628911 1.0072085 0.34360611 4280687905
-0.20130746 0.9529385 0.28052962 4278781451
-0.11845182 0.97116131 0.29236537 4279504403
-0.025497824 1.0005052 0.29472581 4278978572
0.051125605 1.0156838 0.31629676 4279044623
0.56836325 0.96883726 0.17626522 4289371566
-0.28899786 0.97482443 0.17998745 4278256906
-0.22691245 0.97264969 0.21318045 4278584329
-0.13776571 1.004106 0.20948832 4278518534
-0.062626272 1.0225625 0.22653523 4278518534
0.5877648 0.95783699 0.14064048 4285949291
0.6173948 0.94977987 0.10706754 4287593349
-0.30733109 1.0000452 0.10255736 4278781194
-0.24618104 1.006037 0.12043808 4278649865
-0.1744667 1.023245 0.14154759 4278584072
0.61743945 0.95652944 0.05567342 4289242795
-0.32661149 1.0224528 0.025890764 4278912524
-0.28146586 1.025174 0.051906586 4278650122
-0.31482559 0.98803908 -0.5265193 4292204000
-0.25443199 0.98160583 -0.53731227 4292203226
-0.41535988 0.9872365 -0.60597515 4294835709
-0.30999899 0.96122789 -0.58078557 4292795878
-0.22514832 0.94994521 -0.59820879 4291151056
-0.13898619 0.95473552 -0.61772901 4292598498
0.19267085 0.93113142 -0.68666762 4294901502
-0.41183841 0.96580011 -0.64221847 4294901501
-0.33778179 0.94686329 -0.64578867 4294638331
-0.22406287 0.92138624 -0.65235388 4292203487
-0.12853223 0.94158882 -0.6728791 4294111989
-0.031378694 0.93897295 -0.68653059 4294901502
0.065894641 0.93239427 -0.70360911 4294901502
0.17308789 0.91936171 -0.71368718 4294835709
0.26443401 0.91019988 -0.7222597 4294835709
0.36120877 0.90284717 -0.73859727 4294835709
0.43121913 0.89923161 -0.76194191 4294835452
0.12049744 1.0301951 0.33532986 4278913808
0.17196113 1.0433373 0.34436691 4280096542
0.27884379 1.0663878 0.31918508 4288054932
0.34389398 1.043188 0.30113477 4287800508
0.0098119462 1.034155 0.24905433 4278847499
0.085807778 1.0472584 0.27024892 4279308308
0.16814207 1.0753014 0.26952454 4281281077
0.28820786 1.0779233 0.25225782 4280031003
0.37888554 1.0384133 0.23609345 4282794567
0.46792477 1.0031043 0.20874164 4284902775
0.53569317 0.97806269 0.18778098 4289239718
-0.10486691 1.0371366 0.16415551 4278518533
-0.025257898 1.0518109 0.18276663 4278650119
0.071319126 1.0824172 0.17738324 4279373587
0.13949743 1.0990996 0.18500604 4279636761
0.30099207 1.0886089 0.17112143 4278650121
0.37351078 1.0615722 0.13977998 4278584841
0.46845165 1.0205894 0.13321836 4278650377
0.55215412 0.98447806 0.11516711 4279570451
-0.21149206 1.0407518 0.076451093 4278715402
-0.13577293 1.0575415 0.096212946 4278649864
-0.038254235 1.0878952 0.087569207 4278913035
0.040010434 1.1022753 0.10515214 4279307537
0.39060217 1.0699111 0.057061929 4278584842
0.45956525 1.0449274 0.030904718 4278650377
0.55630416 0.99985719 0.024459461 4280360226
0.61016446 0.96755469 0.032827418 4289570222
-0.32357839 1.0415437 -0.010426858 4279175438
-0.24607807 1.0605353 0.0071127578 4279044110
-0.1497052 1.0929976 0.0039661862 4279175953
-0.074749142 1.1069714 0.016803803 4279438353
0.47501627 1.0550159 -0.048908021 4278715913
0.54003131 1.0256279 -0.071778797 4281412913
-0.34810182 1.0625131 -0.079905257 4280227359
-0.26115319 1.0970707 -0.085011445 4279833628
-0.18479612 1.1111095 -0.062758073 4279899421
0.53640801 1.0417073 -0.14733861 4284701279
-0.43351713 1.1157092 -0.2133479 4284439924
-0.37757063 1.0875916 -0.1614648 4282069822
-0.30570355 1.0986149 -0.14347982 4280687393
-0.45428431 1.101292 -0.26464942 4290292670
-0.39383477 1.079566 -0.29637426 4291676633
-0.48200178 1.1079586 -0.36648303 4289110713
-0.41475019 1.092232 -0.3520183 4292662239
-0.26230413 1.059889 -0.43606856 4293256173
-0.18957482 1.0731215 -0.42945632 4292730085
-0.095898971 1.0682313 -0.44257769 4291545298
-0.0020082782 1.06207 -0.4593716 4290822601
0.073997542 1.060262 -0.47430602 4292005338
0.52792275 1.0082643 -0.48753455 4291015869
0.56384605 0.99610853 -0.47839969 4289892496
-0.4781712 1.0835397 -0.46817249 4292072669
-0.40849948 1.0737821 -0.47790211 4294111735
-0.29992682 1.0193539 -0.48703688 4292795366
-0.20527971 1.0218714 -0.49895507 4291414227
-0.10583851 1.0223819 -0.50993103 4291085519
-0.0055835713 1.0245023 -0.52297634 4291545812
0.089560263 1.0321604 -0.53787941 4293058790
0.19468094 1.031904 -0.57330769 4294901501
0.28955886 1.0225698 -0.58115286 4294901502
0.37912834 1.0162466 -0.59855253 4294835709
0.50848752 0.98126376 -0.57203913 4291743702
0.54666245 0.966425 -0.58031905 4293452521
-0.47254053 1.0365572 -0.53997922 4294507002
-0.41991618 1.0154278 -0.56195718 4294835709
-0.36312798 0.99816203 -0.55955118 4294901502
-0.19955403 0.98261929 -0.55498165 4290624452
-0.10487804 0.97758633 -0.58975595 4291480019
-0.019495333 0.98311663 -0.61819327 4293848560
0.078892685 0.98716736 -0.63082749 4294704124
0.17942186 0.97904921 -0.64037079 4294835709
0.27831852 0.96709079 -0.65066797 4294835453
0.37656981 0.96344006 -0.66388619 4294835709
0.47404203 0.96932697 -0.67605865 4292796904
0.53110528 0.92315388 -0.67219633 4291414995
-0.081125744 0.96187478 -0.66093832 4294901502
-0.020420451 0.95635337 -0.66765386 4294901502
0.079844452 0.95112193 -0.68386817 4294901502
0.14899468 0.94337809 -0.69318044 4294835709
0.28166184 0.92820257 -0.70167214 4294901502
0.37361458 0.92138374 -0.71682471 4294901502
0.47201166 0.92548257 -0.75205725 4294572539
0.52098083 0.92573762 -0.76675916 4293125615
0.21657553 1.1143463 0.22068669 4285821818
0.24209011 1.1090322 0.21289644 4278716172
0.10978805 1.1160029 0.13528983 4279702811
0.20287137 1.1337429 0.14989193 4283319890
0.2654739 1.1116167 0.13907208 4278781707
0.32820824 1.0906583 0.098242044 4278781960
-0.0024712463 1.1188773 0.038047444 4279964698
0.071364895 1.1310649 0.063802332 4280227870
0.18402418 1.1622888 0.051038228 4282334278
0.2694557 1.1276772 0.048579313 4278913295
0.35257611 1.0940729 0.029303933 4278781707
0.41299906 1.0743412 -0.014903171 4278584588
-0.11598393 1.1221473 -0.041457254 4279899677
-0.037933212 1.1354244 -0.023886476 4280293920
0.048269976 1.1618768 -0.028233506 4281017129
0.18233527 1.1783576 -0.026593391 4281018418
0.26025596 1.1516086 -0.051875576 4279505433
0.35541356 1.1104543 -0.061471615 4279110416
0.43928644 1.0758392 -0.079925463 4278913036
0.49822307 1.0584815 -0.11545952 4278651145
-0.21687903 1.123284 -0.11632946 4279703070
-0.15368818 1.1350565 -0.1004874 4280228129
-0.055556182 1.1530899 -0.087962516 4280096797
0.031216841 1.1713481 -0.084335104 4280491299
0.27200961 1.1631706 -0.13800149 4280755499
0.34828174 1.1332439 -0.16111976 4280294691
0.44328943 1.0923594 -0.17072937 4279702554
0.50925261 1.0637906 -0.18649703 4281543987
-0.21299008 1.1561223 -0.16248029 4280291873
-0.17150973 1.1628634 -0.16208781 4279901222
0.35241142 1.1447225 -0.24793822 4286872198
0.43187228 1.1146313 -0.27281716 4284833899
0.49595469 1.0859066 -0.27558532 4285885302
-0.57235414 1.2233607 -0.25674707 4284756795
-0.44607225 1.1628081 -0.29102784 4291743970
-0.37943736 1.1958065 -0.31947944 4294309111
-0.2631183 1.1985056 -0.33846882 4287994790
-0.17651927 1.1898063 -0.35679397 4292994543
-0.056152828 1.1330863 -0.35717851 4292663778
0.020540146 1.1428014 -0.35346103 4291743447
0.10109681 1.1478814 -0.35928223 4291348175
0.4495796 1.1198026 -0.38261092 4290033602
0.51807046 1.1071923 -0.40377805 4293190377
0.58360982 1.0629522 -0.40790617 4289830819
-0.53395277 1.1557784 -0.36886609 4288320177
-0.48184076 1.1383065 -0.39280838 4292860645
-0.38529336 1.1501325 -0.38739869 4294177270
-0.2854324 1.1570877 -0.39728409 4294440953
-0.18257345 1.1528618 -0.38864541 4293519600
-0.083173826 1.1030869 -0.39640361 4292269020
0.019445982 1.1041585 -0.4157334 4292006105
0.10963527 1.1228391 -0.44703758 4293388268
0.21107116 1.1225407 -0.46763486 4293587193
0.30857524 1.1170908 -0.48640189 4291155948
0.41409189 1.1095331 -0.48763773 4290232531
0.4942261 1.06216 -0.46723491 4292269790
0.57413268 1.0252427 -0.43831596 4288843407
-0.49627057 1.1200057 -0.42776883 4292203998
-0.37666011 1.1114721 -0.44076815 4293782772
-0.32566133 1.1129258 -0.44805786 4293585395
0.12890413 1.073609 -0.5119639 4294769660
0.19769709 1.0700862 -0.52636707 4294901502
0.30205324 1.0631956 -0.53530699 4294769917
0.40028593 1.0620954 -0.55666327 4292667893
0.46089169 1.0495067 -0.58564055 4291087326
0.46542498 1.0209937 -0.62673199 4293257713
-0.50599051 1.3394684 0.68585342 4279437597
-0.45152393 1.3431337 0.68405491 4280753704
-0.3506639 1.3386546 0.67453343 4279963672
-0.24705844 1.341194 0.6602121 4279634963
-0.15830486 1.3601927 0.65873551 4279701011
-0.51606399 1.3629208 0.63225114 4280291615
-0.45363948 1.3539822 0.62091011 4280029465
-0.3538017 1.348614 0.60551012 4279831829
-0.25893128 1.357385 0.59811127 4279569425
-0.18308899 1.3671045 0.6165719 4280292121
-0.45438868 1.3692359 0.54878455 4280029465
-0.37149373 1.3654882 0.54250044 4279634964
-0.30800855 1.3694924 0.54007941 4279437080
